ply
format ascii 1.0
element vertex 1487
property double x
property double y
property double z
property uchar red
property uchar green
property uchar blue
end_header
3.4881 1.5878 7.1886 109 109 109
3.5081 1.5878 7.1886 102 102 102
3.5281 1.5878 7.1886 106 106 106
3.5481 1.5878 7.1886 105 105 105
-4.5401 1.6697 7.465 168 168 168
-4.5193 1.6697 7.465 178 178 178
-4.4985 1.6697 7.465 178 178 178
-4.4778 1.6697 7.465 179 179 179
-4.457 1.6697 7.465 179 179 179
-4.4362 1.6697 7.465 182 182 182
-4.5273 1.7365 7.7636 119 119 119
-4.5057 1.7365 7.7636 128 128 128
-4.4841 1.7365 7.7636 140 140 140
-4.4625 1.7365 7.7636 151 151 151
-4.4409 1.7365 7.7636 159 159 159
-4.5134 1.8088 8.0871 131 131 131
-4.4909 1.8088 8.0871 135 135 135
-4.4684 1.8088 8.0871 136 136 136
-4.4459 1.8088 8.0871 131 131 131
-4.4234 1.8088 8.0871 131 131 131
-4.4009 1.8088 8.0871 132 132 132
-4.3784 1.8088 8.0871 129 129 129
-4.3559 1.8088 8.0871 128 128 128
-4.3334 1.8088 8.0871 127 127 127
-0.59393 1.6697 7.465 97 97 97
-0.57316 1.6697 7.465 107 107 107
0.54838 1.6697 7.465 94 94 94
1.3584 1.6697 7.465 30 30 30
1.3792 1.6697 7.465 29 29 29
1.3999 1.6697 7.465 28 28 28
1.4207 1.6697 7.465 29 29 29
1.4415 1.6697 7.465 29 29 29
1.4622 1.6697 7.465 28 28 28
1.483 1.6697 7.465 28 28 28
1.5038 1.6697 7.465 30 30 30
1.5245 1.6697 7.465 31 31 31
1.5453 1.6697 7.465 31 31 31
1.5661 1.6697 7.465 29 29 29
1.5868 1.6697 7.465 28 28 28
1.6881 1.6078 7.1886 49 49 49
1.7081 1.6078 7.1886 52 52 52
1.7281 1.6078 7.1886 61 61 61
2.2281 1.6078 7.1886 74 74 74
2.2481 1.6078 7.1886 71 71 71
2.2681 1.6078 7.1886 56 56 56
2.2881 1.6078 7.1886 79 79 79
3.4881 1.6078 7.1886 104 104 104
3.5081 1.6078 7.1886 100 100 100
3.5281 1.6078 7.1886 102 102 102
-4.5193 1.6905 7.465 176 176 176
-4.4985 1.6905 7.465 171 171 171
-4.4778 1.6905 7.465 162 162 162
-4.457 1.6905 7.465 157 157 157
-4.4362 1.6905 7.465 136 136 136
-4.5273 1.7581 7.7636 135 135 135
-4.5057 1.7581 7.7636 147 147 147
-4.4841 1.7581 7.7636 153 153 153
-4.4625 1.7581 7.7636 153 153 153
-4.4409 1.7581 7.7636 149 149 149
-4.4193 1.7581 7.7636 141 141 141
-4.3977 1.7581 7.7636 134 134 134
-4.3559 1.8313 8.0871 123 123 123
1.3792 1.6905 7.465 31 31 31
1.3999 1.6905 7.465 30 30 30
1.4207 1.6905 7.465 29 29 29
1.4415 1.6905 7.465 30 30 30
1.6481 1.6278 7.1886 30 30 30
1.6681 1.6278 7.1886 31 31 31
1.6881 1.6278 7.1886 32 32 32
2.1881 1.6278 7.1886 64 64 64
2.2081 1.6278 7.1886 54 54 54
2.2281 1.6278 7.1886 79 79 79
2.2481 1.6278 7.1886 76 76 76
2.2681 1.6278 7.1886 55 55 55
-4.5719 1.6478 7.1886 166 166 166
-4.5519 1.6478 7.1886 166 166 166
-4.5319 1.6478 7.1886 159 159 159
-4.5119 1.6478 7.1886 155 155 155
-4.4919 1.6478 7.1886 156 156 156
-4.4719 1.6478 7.1886 163 163 163
-4.4985 1.7112 7.465 144 144 144
-4.4778 1.7112 7.465 130 130 130
-4.457 1.7112 7.465 109 109 109
-4.4362 1.7112 7.465 105 105 105
-4.4155 1.7112 7.465 123 123 123
-4.5057 1.7797 7.7636 156 156 156
-4.4841 1.7797 7.7636 147 147 147
-4.4625 1.7797 7.7636 139 139 139
-4.4409 1.7797 7.7636 132 132 132
-4.4193 1.7797 7.7636 131 131 131
-4.3977 1.7797 7.7636 128 128 128
-4.3761 1.7797 7.7636 130 130 130
-4.3545 1.7797 7.7636 136 136 136
2.1481 1.6478 7.1886 102 102 102
2.1681 1.6478 7.1886 101 101 101
2.1881 1.6478 7.1886 99 99 99
2.2081 1.6478 7.1886 96 96 96
-4.4919 1.6678 7.1886 167 167 167
-4.4719 1.6678 7.1886 170 170 170
-4.4519 1.6678 7.1886 165 165 165
-4.4985 1.732 7.465 113 113 113
-4.4778 1.732 7.465 115 115 115
-4.457 1.732 7.465 119 119 119
-4.4362 1.732 7.465 130 130 130
-4.4155 1.732 7.465 147 147 147
-4.4841 1.8013 7.7636 131 131 131
-4.4625 1.8013 7.7636 129 129 129
-4.4409 1.8013 7.7636 127 127 127
-4.4193 1.8013 7.7636 126 126 126
-4.3977 1.8013 7.7636 128 128 128
-4.3761 1.8013 7.7636 132 132 132
-4.3545 1.8013 7.7636 132 132 132
-4.3329 1.8013 7.7636 126 126 126
-4.4919 1.6878 7.1886 175 175 175
-4.4719 1.6878 7.1886 169 169 169
-4.4519 1.6878 7.1886 170 170 170
-4.4319 1.6878 7.1886 168 168 168
-4.4985 1.7528 7.465 116 116 116
-4.4778 1.7528 7.465 135 135 135
-4.457 1.7528 7.465 147 147 147
-4.4362 1.7528 7.465 152 152 152
-4.4155 1.7528 7.465 153 153 153
-4.3947 1.7528 7.465 144 144 144
-4.4625 1.8229 7.7636 130 130 130
5.9236 2.3536 10.024 22 22 22
-4.4719 1.7078 7.1886 154 154 154
-4.4519 1.7078 7.1886 147 147 147
-4.4319 1.7078 7.1886 134 134 134
-4.4985 1.7735 7.465 149 149 149
-4.4778 1.7735 7.465 155 155 155
-4.457 1.7735 7.465 153 153 153
-4.4362 1.7735 7.465 141 141 141
-4.4155 1.7735 7.465 132 132 132
-4.3947 1.7735 7.465 128 128 128
-4.3739 1.7735 7.465 127 127 127
-4.3532 1.7735 7.465 122 122 122
-4.4719 1.7278 7.1886 107 107 107
-4.4519 1.7278 7.1886 97 97 97
-4.4319 1.7278 7.1886 104 104 104
-4.4778 1.7943 7.465 136 136 136
-4.457 1.7943 7.465 126 126 126
-4.4362 1.7943 7.465 126 126 126
-4.4155 1.7943 7.465 128 128 128
-4.3947 1.7943 7.465 129 129 129
-4.3739 1.7943 7.465 125 125 125
-4.3532 1.7943 7.465 120 120 120
-4.3324 1.7943 7.465 125 125 125
5.8179 4.008 16.675 122 122 122
-4.4719 1.7478 7.1886 109 109 109
-4.4519 1.7478 7.1886 115 115 115
-4.4319 1.7478 7.1886 131 131 131
-4.4119 1.7478 7.1886 149 149 149
-4.457 1.8151 7.465 125 125 125
-4.4362 1.8151 7.465 133 133 133
-4.4155 1.8151 7.465 131 131 131
-4.3947 1.8151 7.465 124 124 124
-4.3739 1.8151 7.465 120 120 120
-4.3532 1.8151 7.465 121 121 121
-4.3324 1.8151 7.465 121 121 121
-4.4719 1.7678 7.1886 138 138 138
-4.4519 1.7678 7.1886 147 147 147
-4.4319 1.7678 7.1886 152 152 152
-4.4119 1.7678 7.1886 146 146 146
-4.3919 1.7678 7.1886 133 133 133
-4.3719 1.7678 7.1886 123 123 123
-4.4519 1.7878 7.1886 149 149 149
-4.4319 1.7878 7.1886 136 136 136
-4.4119 1.7878 7.1886 122 122 122
-4.3919 1.7878 7.1886 122 122 122
-4.3719 1.7878 7.1886 127 127 127
-4.3519 1.7878 7.1886 131 131 131
-4.4319 1.8078 7.1886 129 129 129
-4.4119 1.8078 7.1886 126 126 126
-4.3919 1.8078 7.1886 128 128 128
-4.3719 1.8078 7.1886 130 130 130
-4.3519 1.8078 7.1886 128 128 128
-4.3319 1.8078 7.1886 128 128 128
-4.3119 1.8078 7.1886 124 124 124
-4.2919 1.8078 7.1886 122 122 122
-3.6532 3.4543 13.735 100 100 100
3.2188 2.1022 8.3591 140 140 140
-7.4397 2.6602 10.462 151 151 151
-3.5614 2.3075 8.9768 115 115 115
1.1814 1.9427 7.3975 92 92 92
-6.0423 -3.1368 13.129 64 64 64
4.6874 -1.7774 7.9978 19 19 19
-8.4584 -2.6346 11.621 47 47 47
-7.9873 -2.4975 11.055 41 41 41
-7.2884 -2.6353 11.624 87 87 87
-7.2584 -2.6353 11.624 61 61 61
-7.2284 -2.6353 11.624 43 43 43
-7.1984 -2.6353 11.624 48 48 48
-7.1684 -2.6353 11.624 55 55 55
-7.4285 -2.7888 12.257 71 71 71
-7.3968 -2.7888 12.257 72 72 72
-7.365 -2.7888 12.258 74 74 74
-7.3332 -2.7888 12.258 59 59 59
-7.3015 -2.7888 12.258 41 41 41
-8.3546 -3.3806 14.701 72 72 72
-8.316 -3.3806 14.701 87 87 87
-8.2774 -3.3807 14.701 91 91 91
-8.2389 -3.3807 14.702 74 74 74
-7.5127 -3.1573 13.779 52 52 52
-7.4767 -3.1573 13.779 48 48 48
-7.4407 -3.1573 13.779 44 44 44
-7.4047 -3.1573 13.779 41 41 41
-7.3687 -3.1574 13.779 39 39 39
-7.3327 -3.1574 13.779 37 37 37
-7.2967 -3.1574 13.78 41 41 41
-7.2607 -3.1574 13.78 46 46 46
-7.2247 -3.1574 13.78 49 49 49
-7.1887 -3.1575 13.78 51 51 51
-7.1527 -3.1575 13.78 53 53 53
-7.1167 -3.1575 13.78 83 83 83
-7.0807 -3.1575 13.78 117 117 117
-7.0447 -3.1575 13.78 117 117 117
-7.0087 -3.1576 13.78 95 95 95
-7.3517 -3.3811 14.703 55 55 55
-7.3132 -3.3812 14.703 61 61 61
-7.2746 -3.3812 14.704 54 54 54
-7.236 -3.3812 14.704 50 50 50
-7.1975 -3.3812 14.704 54 54 54
-7.1589 -3.3812 14.704 57 57 57
-7.1203 -3.3813 14.704 68 68 68
-7.0817 -3.3813 14.704 84 84 84
-7.0432 -3.3813 14.704 95 95 95
-7.0046 -3.3813 14.704 81 81 81
-6.966 -3.3813 14.704 65 65 65
-6.9275 -3.3814 14.704 75 75 75
-7.2906 -3.6394 15.77 69 69 69
-7.249 -3.6394 15.77 52 52 52
-7.2075 -3.6394 15.77 58 58 58
-7.166 -3.6394 15.77 73 73 73
-7.1244 -3.6395 15.77 68 68 68
-7.0829 -3.6395 15.77 57 57 57
-7.0413 -3.6395 15.77 58 58 58
-6.9998 -3.6395 15.77 58 58 58
-6.7692 -3.9409 17.015 91 91 91
-6.7242 -3.9409 17.015 120 120 120
-6.6792 -3.9409 17.015 110 110 110
-6.6342 -3.941 17.015 83 83 83
-6.5892 -3.941 17.015 80 80 80
-6.5442 -3.941 17.015 102 102 102
-6.4992 -3.941 17.015 147 147 147
-6.4542 -3.9411 17.015 157 157 157
-6.7912 -4.2969 18.485 84 84 84
-6.7422 -4.2969 18.485 101 101 101
-6.6931 -4.2969 18.485 122 122 122
-6.644 -4.297 18.485 98 98 98
-6.5949 -4.297 18.485 80 80 80
-6.5458 -4.297 18.485 120 120 120
-6.4967 -4.297 18.485 132 132 132
-6.4476 -4.2971 18.485 92 92 92
0.31095 -3.6434 15.785 163 163 163
0.35249 -3.6434 15.785 161 161 161
0.39403 -3.6434 15.786 163 163 163
0.43557 -3.6435 15.786 162 162 162
0.56577 -3.9448 17.03 163 163 163
0.61077 -3.9448 17.03 163 163 163
0.65577 -3.9448 17.03 162 162 162
0.97556 -3.6438 15.787 94 94 94
1.0171 -3.6438 15.787 139 139 139
1.0586 -3.6438 15.787 146 146 146
1.1002 -3.6438 15.787 121 121 121
1.1417 -3.6438 15.787 109 109 109
1.1833 -3.6439 15.787 102 102 102
1.2248 -3.6439 15.787 96 96 96
1.2663 -3.6439 15.787 98 98 98
1.3079 -3.6439 15.787 119 119 119
1.3494 -3.644 15.788 108 108 108
1.3909 -3.644 15.788 119 119 119
1.5156 -3.644 15.788 64 64 64
1.5571 -3.6441 15.788 46 46 46
1.5986 -3.6441 15.788 78 78 78
1.6402 -3.6441 15.788 114 114 114
1.6817 -3.6441 15.788 119 119 119
1.7233 -3.6442 15.788 87 87 87
1.7648 -3.6442 15.788 96 96 96
1.8063 -3.6442 15.788 145 145 145
4.1443 -4.7299 20.271 63 63 63
4.1983 -4.7299 20.271 43 43 43
4.2523 -4.7299 20.271 49 49 49
3.6025 -3.3869 14.726 116 116 116
3.6797 -3.387 14.726 158 158 158
3.7568 -3.387 14.726 76 76 76
4.914 -3.3876 14.729 112 112 112
4.9525 -3.3877 14.729 132 132 132
4.9911 -3.3877 14.729 167 167 167
3.1254 -1.7705 8.0518 255 255 255
-8.4584 -2.6046 11.621 60 60 60
-7.9873 -2.4691 11.055 56 56 56
-7.3484 -2.6052 11.623 63 63 63
-7.3184 -2.6052 11.624 65 65 65
-7.2884 -2.6053 11.624 77 77 77
-7.2584 -2.6053 11.624 66 66 66
-7.2284 -2.6053 11.624 49 49 49
-7.1984 -2.6053 11.624 48 48 48
-7.1684 -2.6053 11.624 47 47 47
-7.4285 -2.757 12.257 94 94 94
-7.3967 -2.757 12.258 86 86 86
-7.365 -2.757 12.258 68 68 68
-7.3332 -2.757 12.258 62 62 62
-7.3015 -2.7571 12.258 48 48 48
-8.3546 -3.342 14.701 47 47 47
-8.316 -3.3421 14.701 54 54 54
-8.2774 -3.3421 14.702 73 73 73
-8.2389 -3.3421 14.702 76 76 76
-7.4767 -3.1213 13.779 78 78 78
-7.4407 -3.1213 13.779 48 48 48
-7.4047 -3.1213 13.779 36 36 36
-7.3687 -3.1214 13.779 34 34 34
-7.3327 -3.1214 13.78 41 41 41
-7.2967 -3.1214 13.78 47 47 47
-7.2607 -3.1214 13.78 46 46 46
-7.2247 -3.1214 13.78 48 48 48
-7.1887 -3.1215 13.78 48 48 48
-7.1527 -3.1215 13.78 40 40 40
-7.1167 -3.1215 13.78 55 55 55
-7.0807 -3.1215 13.78 86 86 86
-7.0447 -3.1215 13.78 104 104 104
-7.0087 -3.1216 13.78 105 105 105
-7.3517 -3.3426 14.703 68 68 68
-7.3131 -3.3426 14.704 62 62 62
-7.2746 -3.3426 14.704 68 68 68
-7.236 -3.3426 14.704 59 59 59
-7.1974 -3.3427 14.704 53 53 53
-7.1589 -3.3427 14.704 58 58 58
-7.1203 -3.3427 14.704 75 75 75
-7.0817 -3.3427 14.704 72 72 72
-7.0431 -3.3427 14.704 65 65 65
-7.0046 -3.3428 14.704 76 76 76
-7.249 -3.5979 15.77 51 51 51
-7.2075 -3.5979 15.77 52 52 52
-7.1659 -3.5979 15.77 67 67 67
-6.8142 -3.8959 17.015 69 69 69
-6.7692 -3.8959 17.015 81 81 81
-6.7242 -3.8959 17.015 99 99 99
-6.6792 -3.8959 17.015 121 121 121
-6.6342 -3.896 17.015 115 115 115
-6.5892 -3.896 17.015 122 122 122
-6.5442 -3.896 17.015 147 147 147
-6.4992 -3.896 17.015 163 163 163
-6.4542 -3.8961 17.015 170 170 170
-6.7912 -4.2478 18.485 74 74 74
-6.7421 -4.2478 18.485 74 74 74
-6.693 -4.2478 18.485 104 104 104
-6.6439 -4.2479 18.485 116 116 116
-6.5949 -4.2479 18.485 100 100 100
-1.3578 -2.9655 13.128 170 170 170
0.31097 -3.6019 15.785 163 163 163
0.35251 -3.6019 15.786 164 164 164
0.39405 -3.6019 15.786 164 164 164
0.43559 -3.6019 15.786 165 165 165
0.6558 -3.8998 17.03 163 163 163
0.93405 -3.6022 15.787 79 79 79
0.97559 -3.6022 15.787 92 92 92
1.0171 -3.6022 15.787 113 113 113
1.0587 -3.6023 15.787 128 128 128
1.1002 -3.6023 15.787 141 141 141
1.1417 -3.6023 15.787 141 141 141
1.1833 -3.6023 15.787 150 150 150
1.2248 -3.6023 15.787 140 140 140
1.2664 -3.6024 15.787 105 105 105
1.3079 -3.6024 15.787 79 79 79
1.3494 -3.6024 15.788 92 92 92
1.391 -3.6024 15.788 114 114 114
1.4325 -3.6025 15.788 104 104 104
1.474 -3.6025 15.788 64 64 64
1.5156 -3.6025 15.788 62 62 62
1.5571 -3.6025 15.788 45 45 45
1.5987 -3.6025 15.788 60 60 60
1.6402 -3.6026 15.788 102 102 102
1.6817 -3.6026 15.788 107 107 107
1.7233 -3.6026 15.788 89 89 89
1.7648 -3.6026 15.788 154 154 154
4.1443 -4.6759 20.271 37 37 37
4.1983 -4.6759 20.271 61 61 61
4.2523 -4.6759 20.271 62 62 62
3.4868 -3.3483 14.726 204 204 204
3.564 -3.3484 14.726 193 193 193
3.6025 -3.3484 14.726 185 185 185
3.6797 -3.3484 14.726 231 231 231
3.7568 -3.3485 14.726 121 121 121
4.9911 -3.3491 14.729 255 255 255
3.1254 -1.7505 8.0518 255 255 255
-8.4584 -2.5746 11.621 64 64 64
-7.9873 -2.4406 11.055 72 72 72
-7.5633 -2.32 10.545 81 81 81
-7.3484 -2.5752 11.624 52 52 52
-7.3184 -2.5752 11.624 48 48 48
-7.2884 -2.5753 11.624 49 49 49
-7.2584 -2.5753 11.624 53 53 53
-7.2284 -2.5753 11.624 54 54 54
-7.1984 -2.5753 11.624 49 49 49
-7.1684 -2.5753 11.624 42 42 42
-7.4285 -2.7252 12.257 108 108 108
-7.3967 -2.7252 12.258 113 113 113
-7.365 -2.7253 12.258 80 80 80
-7.3332 -2.7253 12.258 58 58 58
-7.3014 -2.7253 12.258 59 59 59
-8.3546 -3.3035 14.701 34 34 34
-8.316 -3.3035 14.702 35 35 35
-8.2774 -3.3035 14.702 38 38 38
-7.5127 -3.0853 13.779 99 99 99
-7.4767 -3.0853 13.779 105 105 105
-7.4407 -3.0853 13.779 94 94 94
-7.4047 -3.0853 13.779 70 70 70
-7.3687 -3.0854 13.779 45 45 45
-7.3327 -3.0854 13.78 42 42 42
-7.2967 -3.0854 13.78 50 50 50
-7.2607 -3.0854 13.78 55 55 55
-7.2247 -3.0854 13.78 51 51 51
-7.1887 -3.0855 13.78 51 51 51
-7.1527 -3.0855 13.78 45 45 45
-7.1167 -3.0855 13.78 46 46 46
-7.0807 -3.0855 13.78 52 52 52
-7.0447 -3.0855 13.78 65 65 65
-7.3903 -3.304 14.703 86 86 86
-7.236 -3.3041 14.704 80 80 80
-7.1974 -3.3041 14.704 62 62 62
-7.1588 -3.3041 14.704 58 58 58
-7.0817 -3.3041 14.704 104 104 104
-6.8142 -3.8509 17.015 57 57 57
-6.7692 -3.8509 17.015 63 63 63
-6.7242 -3.8509 17.015 69 69 69
-6.6792 -3.8509 17.015 96 96 96
-6.6342 -3.851 17.015 111 111 111
-6.5892 -3.851 17.015 134 134 134
-6.5442 -3.851 17.015 168 168 168
-6.4992 -3.851 17.015 178 178 178
-6.4542 -3.8511 17.015 173 173 173
-6.7912 -4.1987 18.485 63 63 63
-6.7421 -4.1987 18.485 62 62 62
-6.693 -4.1987 18.485 68 68 68
-6.5948 -4.1988 18.485 92 92 92
0.31099 -3.5603 15.785 164 164 164
0.35253 -3.5603 15.786 165 165 165
0.39407 -3.5604 15.786 165 165 165
0.43561 -3.5604 15.786 166 166 166
0.89253 -3.5606 15.787 77 77 77
0.93407 -3.5607 15.787 84 84 84
0.97561 -3.5607 15.787 106 106 106
1.0171 -3.5607 15.787 105 105 105
1.0587 -3.5607 15.787 133 133 133
1.1002 -3.5607 15.787 132 132 132
1.1418 -3.5608 15.787 155 155 155
1.1833 -3.5608 15.787 161 161 161
1.2248 -3.5608 15.787 159 159 159
1.2664 -3.5608 15.787 156 156 156
1.3079 -3.5609 15.788 115 115 115
1.3495 -3.5609 15.788 125 125 125
1.391 -3.5609 15.788 144 144 144
1.4325 -3.5609 15.788 96 96 96
1.4741 -3.5609 15.788 89 89 89
1.5156 -3.561 15.788 60 60 60
1.5571 -3.561 15.788 61 61 61
1.5987 -3.561 15.788 59 59 59
1.6402 -3.561 15.788 97 97 97
1.6818 -3.5611 15.788 79 79 79
1.7233 -3.5611 15.788 94 94 94
4.1444 -4.6219 20.271 52 52 52
4.1984 -4.6219 20.271 88 88 88
4.2524 -4.6219 20.271 77 77 77
3.6026 -3.3098 14.726 214 214 214
3.6797 -3.3098 14.726 201 201 201
3.7569 -3.3099 14.726 138 138 138
4.9911 -3.3105 14.729 226 226 226
3.1254 -1.7305 8.0519 255 255 255
-8.4584 -2.5446 11.621 54 54 54
-7.9873 -2.4122 11.055 58 58 58
-7.5632 -2.293 10.545 75 75 75
-7.3184 -2.5452 11.624 45 45 45
-7.2884 -2.5453 11.624 38 38 38
-7.2584 -2.5453 11.624 44 44 44
-7.2284 -2.5453 11.624 45 45 45
-7.1984 -2.5453 11.624 44 44 44
-7.492 -2.6934 12.257 46 46 46
-7.4602 -2.6934 12.257 50 50 50
-7.4285 -2.6935 12.258 68 68 68
-7.3967 -2.6935 12.258 90 90 90
-7.3649 -2.6935 12.258 91 91 91
-7.3332 -2.6935 12.258 59 59 59
-7.3014 -2.6935 12.258 62 62 62
-7.2697 -2.6935 12.258 66 66 66
-8.4317 -3.2649 14.701 47 47 47
-8.3931 -3.2649 14.701 40 40 40
-8.3545 -3.2649 14.701 38 38 38
-8.316 -3.2649 14.702 39 39 39
-8.2774 -3.2649 14.702 37 37 37
-7.4407 -3.0493 13.779 78 78 78
-7.4047 -3.0493 13.779 73 73 73
-7.3687 -3.0494 13.78 56 56 56
-7.3327 -3.0494 13.78 51 51 51
-7.2967 -3.0494 13.78 53 53 53
-7.2607 -3.0494 13.78 63 63 63
-7.2247 -3.0494 13.78 67 67 67
-7.1887 -3.0495 13.78 55 55 55
-7.1527 -3.0495 13.78 51 51 51
-7.1167 -3.0495 13.78 48 48 48
-7.0807 -3.0495 13.78 43 43 43
-7.0447 -3.0495 13.78 50 50 50
-6.8336 -3.515 15.771 96 96 96
-6.8591 -3.8058 17.015 99 99 99
-6.8141 -3.8059 17.015 74 74 74
-6.7691 -3.8059 17.015 50 50 50
-6.7241 -3.8059 17.015 52 52 52
-6.6791 -3.8059 17.015 79 79 79
-6.6341 -3.806 17.015 109 109 109
-6.5891 -3.806 17.015 106 106 106
-6.5441 -3.806 17.015 126 126 126
-6.4991 -3.806 17.015 154 154 154
-6.4541 -3.8061 17.015 142 142 142
-6.7912 -4.1496 18.485 66 66 66
-6.7421 -4.1496 18.485 70 70 70
-6.5948 -4.1497 18.485 89 89 89
0.35255 -3.5188 15.786 165 165 165
0.39409 -3.5188 15.786 164 164 164
0.85102 -3.5191 15.787 140 140 140
0.89255 -3.5191 15.787 123 123 123
0.93409 -3.5191 15.787 91 91 91
0.97563 -3.5191 15.787 108 108 108
1.0172 -3.5192 15.787 144 144 144
1.0587 -3.5192 15.787 144 144 144
1.1002 -3.5192 15.787 115 115 115
1.1418 -3.5192 15.787 153 153 153
1.1833 -3.5192 15.787 161 161 161
1.2249 -3.5193 15.787 159 159 159
1.2664 -3.5193 15.788 162 162 162
1.3079 -3.5193 15.788 152 152 152
1.3495 -3.5193 15.788 121 121 121
1.391 -3.5194 15.788 143 143 143
1.4326 -3.5194 15.788 134 134 134
1.4741 -3.5194 15.788 114 114 114
1.5156 -3.5194 15.788 79 79 79
1.5572 -3.5194 15.788 73 73 73
1.5987 -3.5195 15.788 78 78 78
1.6402 -3.5195 15.788 98 98 98
1.6818 -3.5195 15.788 70 70 70
1.7233 -3.5195 15.788 117 117 117
3.6026 -3.2712 14.726 255 255 255
3.7569 -3.2713 14.727 158 158 158
4.9526 -3.2719 14.729 84 84 84
4.9912 -3.272 14.729 108 108 108
3.2267 -1.7752 8.3285 255 255 255
3.1254 -1.7105 8.0519 255 255 255
-8.4584 -2.5146 11.621 62 62 62
-7.9872 -2.3838 11.055 69 69 69
-7.2584 -2.5153 11.624 43 43 43
-7.2284 -2.5153 11.624 50 50 50
-7.492 -2.6617 12.257 45 45 45
-7.4602 -2.6617 12.257 44 44 44
-7.4285 -2.6617 12.258 40 40 40
-7.3967 -2.6617 12.258 46 46 46
-7.3649 -2.6617 12.258 57 57 57
-7.3332 -2.6618 12.258 52 52 52
-7.3014 -2.6618 12.258 50 50 50
-7.2696 -2.6618 12.258 54 54 54
-8.4702 -3.2263 14.701 41 41 41
-8.4317 -3.2263 14.701 42 42 42
-8.3931 -3.2263 14.701 44 44 44
-8.3545 -3.2263 14.702 51 51 51
-8.3159 -3.2263 14.702 50 50 50
-7.4407 -3.0133 13.779 55 55 55
-7.4047 -3.0133 13.779 49 49 49
-7.3327 -3.0134 13.78 56 56 56
-7.2967 -3.0134 13.78 61 61 61
-7.2607 -3.0134 13.78 70 70 70
-7.2247 -3.0134 13.78 77 77 77
-7.1887 -3.0135 13.78 75 75 75
-7.2905 -3.4732 15.77 53 53 53
-7.2489 -3.4732 15.77 56 56 56
-7.2074 -3.4733 15.77 62 62 62
-7.1659 -3.4733 15.77 64 64 64
-6.8336 -3.4735 15.771 68 68 68
-6.8591 -3.7608 17.015 98 98 98
-6.8141 -3.7609 17.015 88 88 88
-6.7691 -3.7609 17.015 53 53 53
-6.7241 -3.7609 17.015 41 41 41
-6.6791 -3.7609 17.015 57 57 57
-6.6341 -3.761 17.015 81 81 81
-6.5891 -3.761 17.015 90 90 90
-6.5441 -3.761 17.015 90 90 90
-6.4991 -3.761 17.015 101 101 101
-6.4541 -3.7611 17.015 104 104 104
-6.4091 -3.7611 17.016 104 104 104
-6.742 -4.1005 18.485 74 74 74
-6.5948 -4.1006 18.485 66 66 66
0.89258 -3.4776 15.787 120 120 120
0.93411 -3.4776 15.787 59 59 59
0.97565 -3.4776 15.787 78 78 78
1.0172 -3.4776 15.787 117 117 117
1.0587 -3.4776 15.787 96 96 96
1.1003 -3.4777 15.787 111 111 111
1.1418 -3.4777 15.787 134 134 134
1.1833 -3.4777 15.787 142 142 142
1.2249 -3.4777 15.787 150 150 150
1.2664 -3.4778 15.788 127 127 127
1.308 -3.4778 15.788 122 122 122
1.3495 -3.4778 15.788 112 112 112
1.391 -3.4778 15.788 89 89 89
1.4326 -3.4778 15.788 142 142 142
1.4741 -3.4779 15.788 124 124 124
1.5157 -3.4779 15.788 97 97 97
1.5572 -3.4779 15.788 92 92 92
1.5987 -3.4779 15.788 82 82 82
1.6403 -3.478 15.788 82 82 82
1.6818 -3.478 15.788 78 78 78
1.7233 -3.478 15.788 96 96 96
3.4869 -3.2326 14.726 215 215 215
3.564 -3.2326 14.726 254 254 254
3.6026 -3.2327 14.726 252 252 252
3.6412 -3.2327 14.726 183 183 183
3.6797 -3.2327 14.726 143 143 143
3.7569 -3.2327 14.727 116 116 116
4.3355 -3.233 14.728 222 222 222
4.9912 -3.2334 14.729 129 129 129
5.0297 -3.2334 14.729 130 130 130
5.0683 -3.2334 14.729 105 105 105
5.1069 -3.2335 14.729 135 135 135
5.1455 -3.2335 14.729 93 93 93
5.454 -3.2336 14.73 255 255 255
5.4926 -3.2337 14.73 255 255 255
5.5312 -3.2337 14.73 255 255 255
-8.4584 -2.4846 11.621 57 57 57
-7.9872 -2.3554 11.055 70 70 70
-7.5632 -2.239 10.545 82 82 82
-7.4282 -2.2391 10.545 47 47 47
-7.492 -2.6299 12.257 44 44 44
-7.4602 -2.6299 12.258 42 42 42
-7.4284 -2.6299 12.258 41 41 41
-7.3967 -2.63 12.258 42 42 42
-7.3649 -2.63 12.258 42 42 42
-7.3331 -2.63 12.258 41 41 41
-7.3014 -2.63 12.258 42 42 42
-8.4702 -3.1877 14.701 53 53 53
-8.4316 -3.1877 14.701 48 48 48
-8.3931 -3.1877 14.701 48 48 48
-8.3545 -3.1878 14.702 63 63 63
-7.2905 -3.4317 15.77 42 42 42
-7.2489 -3.4317 15.77 48 48 48
-7.2074 -3.4317 15.77 50 50 50
-7.1658 -3.4318 15.77 52 52 52
-6.8591 -3.7158 17.015 86 86 86
-6.8141 -3.7159 17.015 93 93 93
-6.7691 -3.7159 17.015 102 102 102
-6.7241 -3.7159 17.015 94 94 94
-6.6791 -3.7159 17.015 69 69 69
-6.6341 -3.716 17.015 64 64 64
-6.5891 -3.716 17.015 77 77 77
-6.5441 -3.716 17.015 101 101 101
-6.4991 -3.716 17.015 114 114 114
-6.4541 -3.7161 17.015 100 100 100
-6.4091 -3.7161 17.016 108 108 108
-6.3641 -3.7161 17.016 109 109 109
0.85106 -3.436 15.787 87 87 87
0.8926 -3.436 15.787 95 95 95
0.93414 -3.436 15.787 77 77 77
0.97567 -3.4361 15.787 110 110 110
1.0172 -3.4361 15.787 96 96 96
1.0588 -3.4361 15.787 104 104 104
1.1003 -3.4361 15.787 128 128 128
1.1418 -3.4362 15.787 133 133 133
1.1834 -3.4362 15.787 104 104 104
1.2249 -3.4362 15.788 96 96 96
1.2664 -3.4362 15.788 60 60 60
1.308 -3.4362 15.788 107 107 107
1.3495 -3.4363 15.788 81 81 81
1.3911 -3.4363 15.788 69 69 69
1.4326 -3.4363 15.788 86 86 86
1.4741 -3.4363 15.788 93 93 93
1.5157 -3.4363 15.788 120 120 120
1.5572 -3.4364 15.788 105 105 105
1.5987 -3.4364 15.788 73 73 73
1.6403 -3.4364 15.788 97 97 97
1.6818 -3.4364 15.788 80 80 80
1.7234 -3.4365 15.789 70 70 70
3.4869 -3.194 14.726 137 137 137
3.5641 -3.1941 14.726 253 253 253
3.6026 -3.1941 14.726 247 247 247
3.6412 -3.1941 14.726 224 224 224
3.6798 -3.1941 14.726 153 153 153
3.7183 -3.1941 14.727 53 53 53
3.7569 -3.1942 14.727 53 53 53
4.3355 -3.1945 14.728 146 146 146
4.9912 -3.1948 14.729 241 241 241
5.0298 -3.1948 14.729 170 170 170
5.0683 -3.1949 14.729 221 221 221
5.1069 -3.1949 14.729 140 140 140
5.1455 -3.1949 14.729 129 129 129
5.4541 -3.1951 14.73 255 255 255
5.4926 -3.1951 14.73 255 255 255
5.5312 -3.1951 14.73 255 255 255
4.1268 -1.8079 8.6535 52 52 52
-8.4583 -2.4546 11.621 44 44 44
-7.9872 -2.327 11.055 48 48 48
-7.5632 -2.212 10.545 59 59 59
-7.5092 -2.2121 10.545 88 88 88
-7.4822 -2.2121 10.545 75 75 75
-7.4552 -2.2121 10.545 56 56 56
-7.4282 -2.2121 10.545 50 50 50
-8.4316 -3.1491 14.701 76 76 76
-8.393 -3.1492 14.702 78 78 78
-7.332 -3.3901 15.77 44 44 44
-7.2904 -3.3901 15.77 47 47 47
-7.2489 -3.3902 15.77 59 59 59
-7.2074 -3.3902 15.77 62 62 62
-6.8591 -3.6708 17.015 100 100 100
-6.8141 -3.6709 17.015 109 109 109
-6.7691 -3.6709 17.015 137 137 137
-6.7241 -3.6709 17.015 142 142 142
-6.6791 -3.6709 17.015 105 105 105
-6.6341 -3.671 17.015 85 85 85
-6.5891 -3.671 17.015 74 74 74
-6.5441 -3.671 17.015 95 95 95
-6.4991 -3.671 17.015 125 125 125
-6.4541 -3.6711 17.016 110 110 110
-6.4091 -3.6711 17.016 97 97 97
0.85108 -3.3945 15.787 141 141 141
0.89262 -3.3945 15.787 121 121 121
0.93416 -3.3945 15.787 97 97 97
0.9757 -3.3945 15.787 127 127 127
1.0172 -3.3945 15.787 107 107 107
1.0588 -3.3946 15.787 133 133 133
1.1003 -3.3946 15.787 117 117 117
1.1418 -3.3946 15.787 113 113 113
1.1834 -3.3946 15.787 105 105 105
1.2249 -3.3947 15.788 74 74 74
1.2665 -3.3947 15.788 75 75 75
1.308 -3.3947 15.788 152 152 152
1.3495 -3.3947 15.788 127 127 127
1.3911 -3.3947 15.788 103 103 103
1.4326 -3.3948 15.788 60 60 60
1.4742 -3.3948 15.788 92 92 92
1.5157 -3.3948 15.788 118 118 118
1.5572 -3.3948 15.788 93 93 93
1.5988 -3.3949 15.788 53 53 53
1.6403 -3.3949 15.788 89 89 89
1.6818 -3.3949 15.789 75 75 75
1.7234 -3.3949 15.789 60 60 60
3.4869 -3.1555 14.726 90 90 90
3.5641 -3.1555 14.726 135 135 135
3.6026 -3.1555 14.726 199 199 199
3.6412 -3.1555 14.726 152 152 152
3.6798 -3.1556 14.726 84 84 84
3.7184 -3.1556 14.727 61 61 61
3.7569 -3.1556 14.727 56 56 56
4.9912 -3.1563 14.729 242 242 242
5.0684 -3.1563 14.729 255 255 255
5.1069 -3.1563 14.729 189 189 189
5.4541 -3.1565 14.73 255 255 255
5.4926 -3.1565 14.73 255 255 255
5.5312 -3.1565 14.73 255 255 255
-5.672 -1.5918 7.8806 90 90 90
-8.4583 -2.4246 11.621 42 42 42
-7.9872 -2.2985 11.055 38 38 38
-7.5632 -2.185 10.545 41 41 41
-7.5092 -2.1851 10.545 66 66 66
-7.4822 -2.1851 10.545 82 82 82
-7.4552 -2.1851 10.545 80 80 80
-7.4282 -2.1851 10.546 74 74 74
-8.4316 -3.1106 14.701 79 79 79
-8.393 -3.1106 14.702 87 87 87
-7.6602 -3.111 14.703 84 84 84
-7.6216 -3.111 14.703 62 62 62
-7.9135 -3.3483 15.769 59 59 59
-7.332 -3.3486 15.77 62 62 62
-6.859 -3.6258 17.015 132 132 132
-6.814 -3.6259 17.015 133 133 133
-6.769 -3.6259 17.015 101 101 101
-6.724 -3.6259 17.015 86 86 86
-6.679 -3.6259 17.015 87 87 87
-6.634 -3.626 17.015 91 91 91
-6.589 -3.626 17.015 83 83 83
-6.544 -3.626 17.015 83 83 83
-6.499 -3.626 17.016 83 83 83
-6.454 -3.6261 17.016 85 85 85
0.89264 -3.3529 15.787 89 89 89
0.93418 -3.353 15.787 85 85 85
0.97572 -3.353 15.787 104 104 104
1.0173 -3.353 15.787 84 84 84
1.0588 -3.353 15.787 91 91 91
1.1003 -3.3531 15.787 108 108 108
1.1419 -3.3531 15.787 106 106 106
1.1834 -3.3531 15.788 105 105 105
1.2249 -3.3531 15.788 110 110 110
1.2665 -3.3531 15.788 113 113 113
1.308 -3.3532 15.788 145 145 145
1.3496 -3.3532 15.788 162 162 162
1.3911 -3.3532 15.788 141 141 141
1.4326 -3.3532 15.788 129 129 129
1.4742 -3.3532 15.788 86 86 86
1.5157 -3.3533 15.788 92 92 92
1.5573 -3.3533 15.788 69 69 69
1.5988 -3.3533 15.788 58 58 58
1.6403 -3.3533 15.788 94 94 94
1.6819 -3.3534 15.789 82 82 82
1.7234 -3.3534 15.789 61 61 61
3.5641 -3.1169 14.726 67 67 67
3.6027 -3.1169 14.726 69 69 69
3.6412 -3.117 14.726 71 71 71
3.6798 -3.117 14.727 75 75 75
3.7184 -3.117 14.727 83 83 83
3.757 -3.117 14.727 80 80 80
3.7955 -3.117 14.727 72 72 72
5.0684 -3.1177 14.729 254 254 254
5.107 -3.1177 14.729 253 253 253
5.4541 -3.1179 14.73 255 255 255
5.4927 -3.1179 14.73 255 255 255
5.5312 -3.118 14.73 255 255 255
-8.4583 -2.3946 11.621 38 38 38
-7.9872 -2.2701 11.055 35 35 35
-7.5632 -2.158 10.545 37 37 37
-7.5362 -2.1581 10.545 42 42 42
-7.5092 -2.1581 10.545 58 58 58
-7.4822 -2.1581 10.545 76 76 76
-7.4552 -2.1581 10.546 86 86 86
-7.4282 -2.1581 10.546 98 98 98
-7.0001 -2.1513 10.514 54 54 54
-8.4316 -3.072 14.702 49 49 49
-8.393 -3.072 14.702 59 59 59
-7.7759 -3.0723 14.703 48 48 48
-7.7373 -3.0724 14.703 51 51 51
-7.955 -3.3067 15.769 53 53 53
-7.9135 -3.3067 15.769 67 67 67
-7.8719 -3.3068 15.769 75 75 75
-7.8304 -3.3068 15.769 76 76 76
-7.7889 -3.3068 15.769 81 81 81
-7.7473 -3.3068 15.769 56 56 56
-7.7058 -3.3068 15.769 44 44 44
-7.6227 -3.3069 15.769 66 66 66
-7.5812 -3.3069 15.769 72 72 72
-7.5396 -3.3069 15.77 70 70 70
-7.4981 -3.307 15.77 74 74 74
-7.4565 -3.307 15.77 67 67 67
-7.415 -3.307 15.77 66 66 66
-7.3735 -3.307 15.77 87 87 87
-7.3319 -3.307 15.77 114 114 114
-6.859 -3.5808 17.015 116 116 116
-6.814 -3.5809 17.015 119 119 119
-6.769 -3.5809 17.015 103 103 103
-6.724 -3.5809 17.015 84 84 84
-6.679 -3.5809 17.015 80 80 80
-6.634 -3.581 17.015 83 83 83
-6.589 -3.581 17.015 56 56 56
-6.544 -3.581 17.015 51 51 51
-6.499 -3.581 17.016 50 50 50
-6.454 -3.5811 17.016 54 54 54
-6.409 -3.5811 17.016 54 54 54
-6.364 -3.5811 17.016 68 68 68
0.97574 -3.3114 15.787 114 114 114
1.0173 -3.3115 15.787 94 94 94
1.0588 -3.3115 15.787 109 109 109
1.1004 -3.3115 15.787 110 110 110
1.1419 -3.3115 15.787 107 107 107
1.1834 -3.3116 15.788 102 102 102
1.225 -3.3116 15.788 139 139 139
1.2665 -3.3116 15.788 154 154 154
1.308 -3.3116 15.788 119 119 119
1.3496 -3.3116 15.788 142 142 142
1.3911 -3.3117 15.788 153 153 153
1.4327 -3.3117 15.788 165 165 165
1.4742 -3.3117 15.788 107 107 107
1.5157 -3.3117 15.788 94 94 94
1.5573 -3.3118 15.788 100 100 100
1.5988 -3.3118 15.788 57 57 57
1.6404 -3.3118 15.789 68 68 68
1.6819 -3.3118 15.789 58 58 58
3.5641 -3.0784 14.726 115 115 115
3.6027 -3.0784 14.726 92 92 92
3.6413 -3.0784 14.726 75 75 75
3.6798 -3.0784 14.727 90 90 90
3.7184 -3.0784 14.727 88 88 88
3.757 -3.0785 14.727 81 81 81
3.7955 -3.0785 14.727 70 70 70
3.8341 -3.0785 14.727 114 114 114
5.4541 -3.0794 14.73 255 255 255
5.4927 -3.0794 14.73 255 255 255
5.5313 -3.0794 14.73 255 255 255
-8.4583 -2.3646 11.621 43 43 43
-7.9872 -2.2417 11.055 32 32 32
-7.5632 -2.131 10.545 33 33 33
-7.4822 -2.1311 10.545 77 77 77
-7.4552 -2.1311 10.546 88 88 88
-7.4282 -2.1311 10.546 97 97 97
-8.4316 -3.0334 14.702 45 45 45
-8.393 -3.0334 14.702 42 42 42
-7.8144 -3.0338 14.703 38 38 38
-7.7758 -3.0338 14.703 37 37 37
-7.955 -3.2652 15.769 56 56 56
-7.9134 -3.2652 15.769 57 57 57
-7.8719 -3.2652 15.769 65 65 65
-7.8304 -3.2652 15.769 69 69 69
-7.7888 -3.2653 15.769 69 69 69
-7.7473 -3.2653 15.769 63 63 63
-7.6227 -3.2654 15.769 62 62 62
-7.5811 -3.2654 15.77 56 56 56
-7.5396 -3.2654 15.77 51 51 51
-7.4981 -3.2654 15.77 59 59 59
-7.4565 -3.2654 15.77 54 54 54
-7.415 -3.2655 15.77 56 56 56
-7.3735 -3.2655 15.77 84 84 84
-7.3319 -3.2655 15.77 114 114 114
-6.949 -3.5358 17.015 68 68 68
-6.904 -3.5358 17.015 78 78 78
-6.859 -3.5358 17.015 81 81 81
-6.814 -3.5359 17.015 92 92 92
-6.769 -3.5359 17.015 100 100 100
-6.724 -3.5359 17.015 110 110 110
-6.679 -3.5359 17.015 103 103 103
-6.634 -3.536 17.015 90 90 90
-6.589 -3.536 17.015 64 64 64
-6.544 -3.536 17.016 42 42 42
-6.499 -3.536 17.016 43 43 43
-6.454 -3.5361 17.016 44 44 44
-6.409 -3.5361 17.016 54 54 54
-6.364 -3.5361 17.016 62 62 62
-6.319 -3.5361 17.016 91 91 91
0.97576 -3.2699 15.787 121 121 121
1.0173 -3.2699 15.787 113 113 113
1.0588 -3.27 15.787 114 114 114
1.1004 -3.27 15.787 101 101 101
1.1419 -3.27 15.788 137 137 137
1.1835 -3.27 15.788 129 129 129
1.225 -3.27 15.788 141 141 141
1.2665 -3.2701 15.788 148 148 148
1.3081 -3.2701 15.788 95 95 95
1.3496 -3.2701 15.788 95 95 95
1.3911 -3.2701 15.788 138 138 138
1.4327 -3.2702 15.788 146 146 146
1.4742 -3.2702 15.788 121 121 121
1.5158 -3.2702 15.788 95 95 95
1.5573 -3.2702 15.788 107 107 107
1.5988 -3.2702 15.788 50 50 50
1.6404 -3.2703 15.789 52 52 52
1.6819 -3.2703 15.789 73 73 73
3.6027 -3.0398 14.726 203 203 203
3.6413 -3.0398 14.727 108 108 108
3.6799 -3.0398 14.727 82 82 82
3.7184 -3.0399 14.727 72 72 72
3.757 -3.0399 14.727 36 36 36
4.2988 -3.2717 15.794 90 90 90
4.3404 -3.2717 15.794 49 49 49
4.3819 -3.2717 15.794 65 65 65
4.4234 -3.2717 15.794 151 151 151
4.5065 -3.2718 15.794 163 163 163
4.9794 -2.8399 13.805 255 255 255
5.0874 -2.84 13.806 255 255 255
5.1234 -2.84 13.806 255 255 255
5.1594 -2.84 13.806 255 255 255
5.1954 -2.84 13.806 255 255 255
-7.9872 -2.2133 11.055 37 37 37
-7.5631 -2.104 10.545 35 35 35
-7.4551 -2.1041 10.546 68 68 68
-7.4281 -2.1041 10.546 83 83 83
-7.5324 -2.2135 11.056 48 48 48
-7.4472 -2.2136 11.056 48 48 48
-7.4187 -2.2136 11.056 56 56 56
-7.3903 -2.2136 11.056 59 59 59
-7.3619 -2.2136 11.056 54 54 54
-7.3335 -2.2136 11.056 44 44 44
-7.305 -2.2136 11.057 38 38 38
-8.4315 -2.9949 14.702 59 59 59
-8.393 -2.9949 14.702 52 52 52
-7.6227 -3.2238 15.769 57 57 57
-7.5811 -3.2238 15.77 68 68 68
-7.5396 -3.2239 15.77 62 62 62
-7.498 -3.2239 15.77 48 48 48
-7.4565 -3.2239 15.77 41 41 41
-7.415 -3.2239 15.77 39 39 39
-7.3734 -3.2239 15.77 51 51 51
-7.3319 -3.224 15.77 67 67 67
-7.174 -3.4907 17.014 89 89 89
-7.129 -3.4907 17.014 113 113 113
-7.084 -3.4907 17.014 102 102 102
-7.039 -3.4907 17.015 97 97 97
-6.994 -3.4908 17.015 119 119 119
-6.949 -3.4908 17.015 101 101 101
-6.904 -3.4908 17.015 90 90 90
-6.859 -3.4908 17.015 83 83 83
-6.814 -3.4909 17.015 83 83 83
-6.769 -3.4909 17.015 87 87 87
-6.724 -3.4909 17.015 95 95 95
-6.679 -3.4909 17.015 104 104 104
-6.634 -3.491 17.015 102 102 102
-6.589 -3.491 17.015 88 88 88
-6.544 -3.491 17.016 62 62 62
-6.499 -3.491 17.016 48 48 48
-6.454 -3.4911 17.016 50 50 50
-6.409 -3.4911 17.016 54 54 54
-6.364 -3.4911 17.016 57 57 57
1.0589 -3.2284 15.787 128 128 128
1.1004 -3.2284 15.787 88 88 88
1.1419 -3.2285 15.788 114 114 114
1.1835 -3.2285 15.788 103 103 103
1.225 -3.2285 15.788 109 109 109
1.2666 -3.2285 15.788 93 93 93
1.3081 -3.2285 15.788 57 57 57
1.3496 -3.2286 15.788 57 57 57
1.3912 -3.2286 15.788 72 72 72
1.4327 -3.2286 15.788 74 74 74
1.4742 -3.2286 15.788 74 74 74
1.5158 -3.2287 15.788 76 76 76
1.5573 -3.2287 15.788 64 64 64
1.5989 -3.2287 15.789 71 71 71
1.6404 -3.2287 15.789 70 70 70
1.6819 -3.2287 15.789 59 59 59
3.6413 -3.0013 14.727 51 51 51
3.6799 -3.0013 14.727 54 54 54
3.757 -3.0013 14.727 21 21 21
4.2573 -3.2301 15.794 101 101 101
4.2989 -3.2301 15.794 76 76 76
4.3404 -3.2302 15.794 77 77 77
4.3819 -3.2302 15.794 102 102 102
5.0684 -3.002 14.73 255 255 255
5.107 -3.002 14.73 255 255 255
5.1842 -3.0021 14.73 255 255 255
5.2227 -3.0021 14.73 255 255 255
4.9794 -2.8039 13.805 255 255 255
-8.4583 -2.3046 11.622 50 50 50
-7.9871 -2.1849 11.055 41 41 41
-7.5631 -2.077 10.545 38 38 38
-7.5361 -2.0771 10.545 38 38 38
-7.5091 -2.0771 10.545 34 34 34
-7.4551 -2.0771 10.546 42 42 42
-7.4281 -2.0771 10.546 48 48 48
-7.305 -2.1852 11.057 43 43 43
-8.7787 -2.9561 14.701 49 49 49
-8.7015 -2.9561 14.701 41 41 41
-8.6629 -2.9562 14.701 58 58 58
-8.4315 -2.9563 14.702 44 44 44
-8.3929 -2.9563 14.702 38 38 38
-8.3544 -2.9563 14.702 35 35 35
-7.6226 -3.1823 15.77 50 50 50
-7.5811 -3.1823 15.77 60 60 60
-7.5396 -3.1823 15.77 72 72 72
-7.498 -3.1823 15.77 66 66 66
-7.4565 -3.1824 15.77 54 54 54
-7.4149 -3.1824 15.77 49 49 49
-7.3734 -3.1824 15.77 49 49 49
-7.3319 -3.1824 15.77 57 57 57
-7.174 -3.4457 17.014 64 64 64
-7.129 -3.4457 17.014 83 83 83
-7.084 -3.4457 17.015 103 103 103
-7.039 -3.4457 17.015 93 93 93
-6.994 -3.4458 17.015 94 94 94
-6.949 -3.4458 17.015 100 100 100
-6.904 -3.4458 17.015 77 77 77
-6.859 -3.4458 17.015 63 63 63
-6.814 -3.4459 17.015 83 83 83
-6.769 -3.4459 17.015 90 90 90
-6.724 -3.4459 17.015 67 67 67
-6.679 -3.4459 17.015 71 71 71
-6.634 -3.446 17.015 77 77 77
-6.589 -3.446 17.016 63 63 63
-6.544 -3.446 17.016 58 58 58
-6.499 -3.446 17.016 49 49 49
-6.454 -3.4461 17.016 48 48 48
-6.409 -3.4461 17.016 56 56 56
1.1004 -3.1869 15.788 83 83 83
1.142 -3.1869 15.788 65 65 65
1.1835 -3.1869 15.788 93 93 93
1.225 -3.187 15.788 79 79 79
1.2666 -3.187 15.788 53 53 53
1.3081 -3.187 15.788 57 57 57
1.3497 -3.187 15.788 50 50 50
1.3912 -3.1871 15.788 66 66 66
1.4327 -3.1871 15.788 52 52 52
1.4743 -3.1871 15.788 51 51 51
1.5158 -3.1871 15.788 50 50 50
1.5573 -3.1871 15.788 48 48 48
1.5989 -3.1872 15.789 60 60 60
1.6404 -3.1872 15.789 66 66 66
1.682 -3.1872 15.789 59 59 59
3.6413 -2.9627 14.727 61 61 61
3.6799 -2.9627 14.727 36 36 36
3.757 -2.9627 14.727 82 82 82
4.2573 -3.1886 15.794 61 61 61
4.2989 -3.1886 15.794 52 52 52
4.3404 -3.1886 15.794 139 139 139
4.382 -3.1886 15.794 199 199 199
5.2227 -2.9635 14.73 255 255 255
4.9794 -2.7679 13.805 255 255 255
-8.4582 -2.2746 11.622 50 50 50
-7.9871 -2.1564 11.055 49 49 49
-7.5631 -2.05 10.545 49 49 49
-7.5361 -2.0501 10.545 46 46 46
-7.5091 -2.0501 10.546 41 41 41
-7.4551 -2.0501 10.546 42 42 42
-7.4281 -2.0501 10.546 45 45 45
-8.7786 -2.9175 14.701 47 47 47
-8.3543 -2.9178 14.702 33 33 33
-8.2772 -2.9178 14.702 43 43 43
-8.2386 -2.9178 14.702 57 57 57
-7.6226 -3.1407 15.77 67 67 67
-7.5811 -3.1408 15.77 59 59 59
-7.5395 -3.1408 15.77 60 60 60
-7.498 -3.1408 15.77 71 71 71
-7.4565 -3.1408 15.77 73 73 73
-7.4149 -3.1408 15.77 66 66 66
-7.3734 -3.1409 15.77 61 61 61
-7.3318 -3.1409 15.77 54 54 54
-7.2903 -3.1409 15.77 49 49 49
-7.2189 -3.4006 17.014 72 72 72
-7.1739 -3.4007 17.014 71 71 71
-7.1289 -3.4007 17.014 76 76 76
-7.0839 -3.4007 17.015 84 84 84
-7.0389 -3.4007 17.015 88 88 88
-6.9939 -3.4008 17.015 65 65 65
-6.9489 -3.4008 17.015 62 62 62
-6.9039 -3.4008 17.015 79 79 79
-6.8589 -3.4008 17.015 80 80 80
-6.8139 -3.4009 17.015 75 75 75
-6.7689 -3.4009 17.015 88 88 88
-6.7239 -3.4009 17.015 71 71 71
-6.6789 -3.4009 17.015 50 50 50
-6.6339 -3.401 17.015 58 58 58
-6.5889 -3.401 17.016 55 55 55
-6.5439 -3.401 17.016 45 45 45
-6.4989 -3.401 17.016 48 48 48
-6.4539 -3.4011 17.016 59 59 59
-6.4089 -3.4011 17.016 74 74 74
-6.5946 -3.7079 18.486 98 98 98
-6.5455 -3.7079 18.486 120 120 120
1.2666 -3.1454 15.788 65 65 65
1.3081 -3.1455 15.788 64 64 64
1.3497 -3.1455 15.788 72 72 72
1.3912 -3.1455 15.788 97 97 97
1.5989 -3.1456 15.789 36 36 36
1.6404 -3.1456 15.789 50 50 50
1.682 -3.1457 15.789 49 49 49
3.6413 -2.9241 14.727 51 51 51
3.6799 -2.9241 14.727 35 35 35
3.7571 -2.9242 14.727 124 124 124
4.2574 -3.147 15.794 53 53 53
4.2989 -3.1471 15.794 95 95 95
4.3404 -3.1471 15.794 193 193 193
4.382 -3.1471 15.794 143 143 143
5.545 -3.1477 15.797 255 255 255
5.5866 -3.1477 15.797 255 255 255
-8.4582 -2.2446 11.622 43 43 43
-7.9871 -2.128 11.055 40 40 40
-7.5631 -2.023 10.545 45 45 45
-7.5361 -2.0231 10.545 47 47 47
-7.5892 -2.1282 11.056 54 54 54
-8.7786 -2.879 14.701 40 40 40
-8.2386 -2.8792 14.702 42 42 42
-8.3703 -3.0988 15.768 61 61 61
-8.3439 -3.3551 17.012 52 52 52
-7.5811 -3.0992 15.77 68 68 68
-7.5395 -3.0992 15.77 63 63 63
-7.498 -3.0993 15.77 79 79 79
-7.4564 -3.0993 15.77 111 111 111
-7.4149 -3.0993 15.77 101 101 101
-7.3734 -3.0993 15.77 79 79 79
-7.3318 -3.0994 15.77 80 80 80
-7.2903 -3.0994 15.77 75 75 75
-7.2487 -3.0994 15.77 73 73 73
-7.2072 -3.0994 15.77 64 64 64
-7.4439 -3.3555 17.014 60 60 60
-7.0389 -3.3557 17.015 85 85 85
-6.9939 -3.3558 17.015 70 70 70
-6.8589 -3.3558 17.015 101 101 101
-6.8139 -3.3559 17.015 83 83 83
-6.7689 -3.3559 17.015 57 57 57
-6.7239 -3.3559 17.015 53 53 53
-6.6789 -3.3559 17.015 45 45 45
-6.6339 -3.356 17.016 46 46 46
-6.5889 -3.356 17.016 60 60 60
-6.5439 -3.356 17.016 57 57 57
-6.4989 -3.356 17.016 44 44 44
-6.4539 -3.3561 17.016 56 56 56
-6.7418 -3.6587 18.485 74 74 74
-6.6927 -3.6588 18.485 90 90 90
-6.6436 -3.6588 18.486 88 88 88
-6.5945 -3.6588 18.486 92 92 92
-6.5455 -3.6588 18.486 96 96 96
-6.4473 -3.6589 18.486 115 115 115
1.6405 -3.1041 15.789 39 39 39
1.682 -3.1041 15.789 37 37 37
3.6414 -2.8855 14.727 43 43 43
3.6799 -2.8856 14.727 44 44 44
3.7185 -2.8856 14.727 56 56 56
4.3405 -3.1055 15.794 163 163 163
4.382 -3.1056 15.794 163 163 163
5.1071 -2.8863 14.73 255 255 255
5.4156 -2.8865 14.73 255 255 255
-8.4582 -2.2146 11.622 68 68 68
-7.9871 -2.0996 11.055 61 61 61
-7.5631 -1.996 10.545 50 50 50
-7.5361 -1.9961 10.546 48 48 48
-7.5892 -2.0998 11.056 42 42 42
-8.3439 -3.3101 17.012 55 55 55
-8.2989 -3.3101 17.012 49 49 49
-7.581 -3.0577 15.77 62 62 62
-7.5395 -3.0577 15.77 67 67 67
-7.498 -3.0577 15.77 79 79 79
-7.4564 -3.0578 15.77 102 102 102
-7.4149 -3.0578 15.77 101 101 101
-7.3733 -3.0578 15.77 76 76 76
-7.3318 -3.0578 15.77 71 71 71
-7.2903 -3.0578 15.77 85 85 85
-7.2487 -3.0579 15.77 96 96 96
-7.2072 -3.0579 15.771 93 93 93
-7.4439 -3.3105 17.014 56 56 56
-7.3989 -3.3106 17.014 59 59 59
-6.8589 -3.3108 17.015 72 72 72
-6.8139 -3.3109 17.015 64 64 64
-6.7689 -3.3109 17.015 52 52 52
-6.7239 -3.3109 17.015 49 49 49
-6.6789 -3.3109 17.015 48 48 48
-6.6339 -3.311 17.016 39 39 39
-6.5889 -3.311 17.016 38 38 38
-6.5439 -3.311 17.016 49 49 49
-6.4989 -3.311 17.016 58 58 58
-6.7418 -3.6096 18.485 90 90 90
-6.6927 -3.6097 18.486 96 96 96
-6.6436 -3.6097 18.486 89 89 89
-6.5945 -3.6097 18.486 75 75 75
-6.5454 -3.6097 18.486 73 73 73
-6.4963 -3.6098 18.486 76 76 76
-6.4472 -3.6098 18.486 95 95 95
-6.3982 -3.6098 18.486 103 103 103
-6.3491 -3.6098 18.486 107 107 107
1.682 -3.0626 15.789 32 32 32
1.7236 -3.0626 15.789 29 29 29
1.7651 -3.0626 15.789 35 35 35
1.8066 -3.0627 15.789 53 53 53
1.8482 -3.0627 15.789 62 62 62
3.6414 -2.847 14.727 110 110 110
3.68 -2.847 14.727 73 73 73
3.7185 -2.847 14.727 49 49 49
5.0685 -2.8477 14.73 255 255 255
5.1457 -2.8478 14.73 255 255 255
5.2999 -2.8478 14.73 255 255 255
5.3385 -2.8479 14.73 255 255 255
5.3771 -2.8479 14.73 255 255 255
5.4157 -2.8479 14.73 255 255 255
-8.4582 -2.1846 11.622 61 61 61
-7.9871 -2.0712 11.055 62 62 62
-7.5631 -1.969 10.545 59 59 59
-7.5361 -1.9691 10.546 50 50 50
-7.646 -2.0714 11.056 43 43 43
-4.7701 -1.453 7.969 71 71 71
-8.3439 -3.2651 17.012 66 66 66
-8.2989 -3.2651 17.012 74 74 74
-7.3733 -3.0163 15.77 98 98 98
-7.3318 -3.0163 15.77 84 84 84
-7.4439 -3.2655 17.014 65 65 65
-6.8139 -3.2659 17.015 51 51 51
-6.7689 -3.2659 17.015 49 49 49
-6.7239 -3.2659 17.015 47 47 47
-6.6789 -3.2659 17.016 49 49 49
-6.6339 -3.266 17.016 41 41 41
-6.5889 -3.266 17.016 36 36 36
-6.5439 -3.266 17.016 41 41 41
-6.7909 -3.5605 18.485 75 75 75
-6.7418 -3.5605 18.485 109 109 109
-6.6927 -3.5606 18.486 91 91 91
-6.6436 -3.5606 18.486 75 75 75
-6.5945 -3.5606 18.486 72 72 72
-6.5454 -3.5606 18.486 81 81 81
-6.4963 -3.5607 18.486 92 92 92
-6.4472 -3.5607 18.486 99 99 99
-6.3981 -3.5607 18.486 90 90 90
-6.349 -3.5608 18.486 96 96 96
-6.2999 -3.5608 18.486 79 79 79
1.7236 -3.0211 15.789 28 28 28
1.7651 -3.0211 15.789 44 44 44
1.8067 -3.0211 15.789 49 49 49
1.8482 -3.0211 15.789 64 64 64
5.0685 -2.8092 14.73 255 255 255
5.1071 -2.8092 14.73 255 255 255
5.1457 -2.8092 14.73 255 255 255
5.2228 -2.8092 14.73 255 255 255
5.3 -2.8093 14.73 255 255 255
5.3385 -2.8093 14.73 255 255 255
5.3771 -2.8093 14.73 255 255 255
5.4157 -2.8093 14.73 255 255 255
-8.4582 -2.1546 11.622 59 59 59
-7.9871 -2.0428 11.055 56 56 56
-7.5631 -1.942 10.546 55 55 55
-7.7881 -2.0429 11.056 37 37 37
-7.7597 -2.0429 11.056 44 44 44
-8.3438 -3.2201 17.012 51 51 51
-8.2988 -3.2201 17.012 74 74 74
-7.4438 -3.2205 17.014 65 65 65
-7.3988 -3.2206 17.014 84 84 84
-6.8138 -3.2209 17.015 59 59 59
-6.7688 -3.2209 17.015 43 43 43
-6.7238 -3.2209 17.016 39 39 39
-6.6788 -3.2209 17.016 42 42 42
-6.6338 -3.221 17.016 44 44 44
-6.5888 -3.221 17.016 45 45 45
-6.7908 -3.5114 18.485 88 88 88
-6.7417 -3.5115 18.486 100 100 100
-6.6926 -3.5115 18.486 111 111 111
-6.6436 -3.5115 18.486 91 91 91
-6.5945 -3.5115 18.486 81 81 81
-6.5454 -3.5116 18.486 84 84 84
-6.4963 -3.5116 18.486 84 84 84
-6.4472 -3.5116 18.486 84 84 84
-6.3981 -3.5116 18.486 67 67 67
-6.349 -3.5117 18.486 79 79 79
-6.2999 -3.5117 18.486 69 69 69
1.7236 -2.9795 15.789 43 43 43
1.7651 -2.9796 15.789 32 32 32
1.8067 -2.9796 15.789 40 40 40
1.8482 -2.9796 15.789 45 45 45
1.8898 -2.9796 15.789 91 91 91
5.1457 -2.7706 14.73 255 255 255
5.2228 -2.7707 14.73 255 255 255
5.3 -2.7707 14.73 255 255 255
5.3386 -2.7707 14.73 255 255 255
5.3771 -2.7707 14.73 255 255 255
5.4157 -2.7708 14.731 255 255 255
-5.8926 -1.7212 9.5494 105 105 105
-8.3438 -3.1751 17.012 47 47 47
-8.2988 -3.1751 17.012 59 59 59
-7.4888 -3.1755 17.014 52 52 52
-7.4438 -3.1755 17.014 53 53 53
-7.3988 -3.1756 17.014 57 57 57
-6.8138 -3.1759 17.015 82 82 82
-6.7688 -3.1759 17.015 52 52 52
-6.7238 -3.1759 17.016 42 42 42
-6.6788 -3.1759 17.016 37 37 37
-6.6338 -3.176 17.016 38 38 38
-6.5888 -3.176 17.016 44 44 44
-6.7908 -3.4623 18.485 87 87 87
-6.7417 -3.4624 18.486 96 96 96
-6.6926 -3.4624 18.486 98 98 98
-6.6435 -3.4624 18.486 94 94 94
-6.5944 -3.4624 18.486 78 78 78
-6.5453 -3.4625 18.486 64 64 64
-6.4963 -3.4625 18.486 56 56 56
-6.4472 -3.4625 18.486 58 58 58
-6.3981 -3.4625 18.486 61 61 61
-6.349 -3.4626 18.486 77 77 77
-6.2999 -3.4626 18.486 97 97 97
-6.2508 -3.4626 18.487 61 61 61
1.7236 -2.938 15.789 71 71 71
1.7652 -2.938 15.789 46 46 46
1.8067 -2.938 15.789 37 37 37
1.8482 -2.9381 15.789 48 48 48
1.8898 -2.9381 15.789 53 53 53
5.1457 -2.732 14.73 255 255 255
5.2229 -2.7321 14.73 255 255 255
5.3 -2.7321 14.73 255 255 255
5.3386 -2.7322 14.73 255 255 255
5.3772 -2.7322 14.73 255 255 255
5.4157 -2.7322 14.731 255 255 255
-7.3333 -1.9863 11.057 74 74 74
-8.3438 -3.1301 17.012 48 48 48
-8.2988 -3.1301 17.012 56 56 56
-7.4888 -3.1305 17.014 70 70 70
-7.4438 -3.1305 17.014 75 75 75
-7.3988 -3.1306 17.014 69 69 69
-6.8138 -3.1309 17.015 56 56 56
-6.7688 -3.1309 17.016 53 53 53
-6.7238 -3.1309 17.016 49 49 49
-6.6788 -3.1309 17.016 51 51 51
-6.6338 -3.131 17.016 50 50 50
-6.5888 -3.131 17.016 42 42 42
-6.5438 -3.131 17.016 44 44 44
-6.4988 -3.131 17.016 61 61 61
-6.7908 -3.4132 18.486 56 56 56
-6.7417 -3.4133 18.486 82 82 82
-6.6926 -3.4133 18.486 98 98 98
-6.6435 -3.4133 18.486 93 93 93
-6.5944 -3.4133 18.486 84 84 84
-6.5453 -3.4134 18.486 73 73 73
-6.4962 -3.4134 18.486 75 75 75
-6.4471 -3.4134 18.486 76 76 76
-6.398 -3.4135 18.486 72 72 72
-6.349 -3.4135 18.486 61 61 61
-6.2999 -3.4135 18.487 83 83 83
-6.2508 -3.4135 18.487 80 80 80
1.5562 -3.1353 17.033 98 98 98
1.6012 -3.1353 17.033 57 57 57
1.7652 -2.8965 15.789 96 96 96
1.8067 -2.8965 15.789 43 43 43
1.8483 -2.8965 15.789 48 48 48
1.8898 -2.8965 15.79 35 35 35
1.9313 -2.8966 15.79 39 39 39
1.9729 -2.8966 15.79 49 49 49
5.0686 -2.6934 14.73 204 204 204
5.1072 -2.6935 14.73 181 181 181
5.1457 -2.6935 14.73 254 254 254
5.2229 -2.6935 14.73 223 223 223
5.3 -2.6936 14.73 255 255 255
5.3386 -2.6936 14.73 255 255 255
5.3772 -2.6936 14.731 255 255 255
5.4157 -2.6936 14.731 255 255 255
3.6599 -1.6433 9.2637 255 255 255
5.503 -1.3868 7.9267 36 36 36
-8.3438 -3.0851 17.012 57 57 57
-8.2988 -3.0851 17.012 59 59 59
-8.2538 -3.0851 17.013 57 57 57
-7.7138 -3.0854 17.014 64 64 64
-7.6688 -3.0854 17.014 59 59 59
-7.6238 -3.0854 17.014 47 47 47
-7.5788 -3.0855 17.014 67 67 67
-7.5338 -3.0855 17.014 88 88 88
-7.4888 -3.0855 17.014 73 73 73
-7.4438 -3.0855 17.014 45 45 45
-7.3988 -3.0856 17.014 48 48 48
-7.3538 -3.0856 17.014 67 67 67
-6.7238 -3.0859 17.016 42 42 42
-6.6788 -3.0859 17.016 47 47 47
-6.6338 -3.086 17.016 58 58 58
-6.5888 -3.086 17.016 46 46 46
-6.5438 -3.086 17.016 38 38 38
-6.4988 -3.086 17.016 43 43 43
-6.4538 -3.0861 17.016 48 48 48
-6.7908 -3.3642 18.486 55 55 55
-6.7417 -3.3642 18.486 81 81 81
-6.6926 -3.3642 18.486 105 105 105
-6.6435 -3.3642 18.486 109 109 109
-6.5944 -3.3643 18.486 94 94 94
-6.5453 -3.3643 18.486 75 75 75
-6.4962 -3.3643 18.486 62 62 62
-6.4471 -3.3643 18.486 70 70 70
-6.398 -3.3644 18.486 77 77 77
-6.3489 -3.3644 18.487 77 77 77
-6.2998 -3.3644 18.487 70 70 70
-6.2508 -3.3644 18.487 80 80 80
-6.2017 -3.3645 18.487 92 92 92
1.5562 -3.0903 17.033 125 125 125
1.6012 -3.0903 17.033 111 111 111
1.7652 -2.8549 15.789 105 105 105
1.8067 -2.855 15.789 41 41 41
1.8483 -2.855 15.789 32 32 32
1.8898 -2.855 15.79 42 42 42
1.9314 -2.855 15.79 62 62 62
1.9729 -2.8551 15.79 62 62 62
2.0144 -2.8551 15.79 84 84 84
4.2586 -2.6544 14.728 76 76 76
4.2972 -2.6545 14.728 53 53 53
5.0301 -2.6548 14.73 240 240 240
5.0686 -2.6549 14.73 176 176 176
5.1072 -2.6549 14.73 208 208 208
5.1458 -2.6549 14.73 255 255 255
5.1843 -2.6549 14.73 184 184 184
5.2229 -2.6549 14.73 127 127 127
5.3001 -2.655 14.73 255 255 255
5.3386 -2.655 14.73 255 255 255
5.3772 -2.655 14.731 255 255 255
5.4158 -2.655 14.731 255 255 255
-8.2987 -3.0401 17.012 60 60 60
-8.2537 -3.0401 17.013 51 51 51
-7.6687 -3.0404 17.014 43 43 43
-7.6237 -3.0404 17.014 48 48 48
-7.5787 -3.0405 17.014 68 68 68
-7.5337 -3.0405 17.014 66 66 66
-7.4887 -3.0405 17.014 70 70 70
-7.4437 -3.0405 17.014 61 61 61
-7.3987 -3.0406 17.014 37 37 37
-7.3537 -3.0406 17.014 40 40 40
-6.5437 -3.041 17.016 58 58 58
-6.4987 -3.041 17.016 53 53 53
-6.4537 -3.0411 17.016 50 50 50
-6.7907 -3.3151 18.486 50 50 50
-6.7416 -3.3151 18.486 64 64 64
-6.6925 -3.3151 18.486 69 69 69
-6.6435 -3.3151 18.486 79 79 79
-6.5944 -3.3152 18.486 86 86 86
-6.5453 -3.3152 18.486 67 67 67
-6.4962 -3.3152 18.486 55 55 55
-6.4471 -3.3152 18.486 65 65 65
-6.398 -3.3153 18.486 65 65 65
-6.3489 -3.3153 18.487 81 81 81
-6.2998 -3.3153 18.487 100 100 100
-6.2507 -3.3153 18.487 104 104 104
-6.2016 -3.3154 18.487 107 107 107
1.5562 -3.0453 17.033 73 73 73
1.6012 -3.0453 17.033 74 74 74
1.7652 -2.8134 15.789 61 61 61
1.8068 -2.8134 15.789 57 57 57
1.8483 -2.8134 15.79 27 27 27
1.8898 -2.8135 15.79 57 57 57
1.9314 -2.8135 15.79 74 74 74
1.9729 -2.8135 15.79 85 85 85
2.0145 -2.8135 15.79 59 59 59
4.2201 -2.6158 14.728 92 92 92
4.2586 -2.6159 14.728 155 155 155
4.2972 -2.6159 14.728 42 42 42
4.1592 -2.2927 12.996 255 255 255
4.193 -2.2927 12.996 255 255 255
